# 3D point list with one line of data per point:
#   POINT3D_ID, X, Y, Z, R, G, B, ERROR, TRACK[] as (IMAGE_ID, POINT2D_IDX)
# Number of points: 242, mean track length: 8.6083711010397224
972 -13.973960896139683 2.3829913871473174 30.360244297698966 37 27 17 0.7899391343422969 39 558 9 696 43 2551 40 887 44 872 42 1942
973 15.662572372869723 3.6606522170182156 31.211383616329393 48 32 19 0.85467493592032029 39 457 9 737 4 2376 44 2222 42 1817 49 2065 14 1826
975 -8.6600153536092268 3.6788956483888207 27.625539515361407 92 85 76 1.3284318623263114 39 686 9 823 37 697 43 1056 40 945 19 686 16 613
976 -9.0245506475178541 3.8419776971490971 26.966492437460353 71 54 39 1.1236393799398376 4 870 6 1462 7 2631 8 1161 9 827 6 3327 37 744 3 909 32 1229 31 1025 43 1137 40 942 44 968 42 853 2 1869 22 1042
977 -4.7877185054149249 3.7734266936123708 25.999932159735945 9 8 6 0.52742569333314837 6 3332 31 2502
978 -4.0706758934942293 3.7049076326587134 28.39876773536314 63 62 57 1.4655735319634791 4 882 7 978 9 834 32 1238
979 -2.9802582538602898 4.3279943492019672 29.211838925867269 116 112 105 1.8934435090812867 4 889 9 841 37 706
981 15.716357083428566 4.7654283661761081 27.408243900434432 84 77 71 0.58035642314512537 39 598 9 867 37 717 3 2297 44 825 42 702
985 -12.810745946840877 4.1304283667321062 22.904672348433657 27 23 24 0.70225558913213015 4 1000 5 1259 9 932 37 867 39 875 36 865 34 912 38 826 44 1030 42 942 10 640 49 1024 18 1038
989 0.54210962915479322 4.7518939457604166 24.606113804485119 76 90 86 0.54951956973411842 39 703 9 952 37 818 4 1033 7 1134 5 1295 6 1666 8 3089 36 881 3 995 38 735 32 2993 34 3106 49 1056 31 2558 30 1394 30 1395 26 2607 26 2608 25 1149 23 2196 23 2197 29 2368 29 2369 43 1154 41 2087 44 2405 42 2043 28 1967 14 1990 19 2717 19 2718 18 2299 18 2300 20 2342 15 2142 17 1736 17 1737 47 987 16 1564 46 2570 35 1545 13 1844 45 1121 2 2021 1 2772 22 2733 22 2734 27 757 33 672 24 670 12 497 21 1723
990 0.44549037198551356 5.0698216829376559 23.405376059458355 172 165 157 0.395171591712836 5 1303 9 956 37 827 38 787 8 3153 43 1162 19 781
995 -11.370210318840234 6.2653549804195459 18.158152718019291 172 125 87 0.30124633933785266 5 1611 9 1191 34 1177
996 -11.30309681954375 6.3389395993804118 18.334276626040545 145 97 58 0.7084621049051627 5 3033 9 1192 4 1395 8 3318 6 2056 36 2343 3 2557 31 2778 30 1821 26 2781 25 1407 48 2553 47 2954 7 3997 46 2732 35 3375 13 4286 45 3801 2 4586 1 5749 24 1859
997 -10.117002893310618 6.458979878772344 18.505699786295146 146 102 65 0.32210338137688416 6 2077 9 1201 7 1479 8 1749
998 -8.1843209773678041 6.589395289574842 18.510230238718595 125 88 61 0.3529849905913513 4 1455 8 1768 9 1211 6 2096
999 -12.531833540495613 6.3461590232979752 18.042945701165763 179 129 89 0.35739695441929564 4 1360 9 1258 5 1592
1000 -12.712749033314138 6.4606701295776947 18.19113230838509 135 87 49 0.92981925911785346 4 1361 7 1560 9 1259 8 1875 36 2388 37 2919 3 1366 48 2543 47 2420 46 1371 45 3109 1 3385 24 933
1001 -11.824738054433812 6.3872109939085169 17.763622675038075 149 105 67 0.76980136347286299 4 1375 9 1272 7 1567 34 1296 5 3177
1002 -10.742482964963314 6.449511410087073 18.051411908990719 187 136 93 0.97443356674464099 4 1402 6 2061 9 1288 5 1621 5 1620 3 1383
1003 -9.4083967008702558 6.7792948086719944 18.502730523860428 126 76 37 1.1936555123172889 4 1439 7 1608 9 1312 37 1241 19 1299 33 849
1004 -8.8214875960342809 6.7914431497221406 18.530017652767061 126 76 39 0.30501199711721955 4 1448 39 1284 9 1324 34 1216
1005 -6.6344573612887414 6.8026806111978306 18.538345296610757 128 83 54 0.57951518647661171 5 1697 7 1650 8 3507 9 1339 6 3704 3 1334
1006 -6.0546949667327059 6.7752997495009311 18.565385499285263 174 130 101 0.83265570465376426 6 2114 9 1342 34 1244 48 2601
1007 -5.5627127495869777 6.9050246451464607 18.340495080518835 97 57 24 1.2514656412192098 7 1665 39 1166 9 1347 5 3211
1008 -4.9701552698756304 6.945089836643648 18.65573569649041 116 72 43 0.64537350822993556 4 1486 9 1349 3 1439 5 3079 7 3083 8 3513
1009 -3.8000451803101898 7.033124795657554 18.43562447679226 93 52 24 0.80592151757479102 8 3518 39 1175 9 1356 4 1491 5 1880 6 2288 25 1537 23 1366 44 1302 42 1206 15 1289 18 1396 19 1239 17 1038 10 1331
1010 -1.6337844154481469 7.1772465942706747 18.435923494594586 103 67 43 0.54313029383241229 6 2297 8 1998 9 1362 7 1676 32 1943 30 2034 26 1655 29 1499 28 2134
1011 -0.30425887562210369 7.1507795348242311 18.553535773304873 93 52 20 1.8233369746999342 5 1745 9 1368 6 2302 29 1515 34 1263 43 1524 41 1136 4 2890 44 1282 14 1156 19 1140 18 1440 17 1087
1017 10.787593055356886 -1.6924417228849937 30.919089287589255 255 251 255 0.43432476628634825 4 3245 6 3055 7 2387 8 2708 39 1864 9 1958 3 2069 49 1905 43 2295 41 404 37 1806 44 2071 42 1708 47 1965 45 2627
1018 10.797902082468582 -1.1605781674802071 31.032300061766509 161 158 147 0.42882887687134513 8 2742 39 1870 9 1962 37 1808 38 1564 23 668 26 750 43 2322 41 449 40 2015 44 494 35 1159 13 1252 1 1986
1019 10.548697424079243 0.47711289204021229 31.674200872563269 137 129 114 1.8581391806352376 39 399 9 1993 34 2968 26 834 25 764 23 715 28 685 44 545 14 579 18 2056 17 414 32 2684 47 764 35 1238 13 1332 45 938 2 4125 47 2001 1 6326 22 1930 21 2058 11 308
1020 15.01622360023482 1.3627072386521484 29.850577666190478 142 135 125 0.902697548676485 39 405 9 2008 36 1861 29 2164 26 2336 42 518 38 1597 35 1255 11 875
1021 3.2438696275235381 1.566913086041418 24.060316599270415 155 147 134 0.16891752917760211 9 2024 18 714
1022 -5.7135743277433964 1.8225560219724386 26.710154256814871 7 7 5 0.86546648697994044 4 3300 5 2634 6 4129 9 2049 37 2665 3 2929 49 2753 4 3779 31 2392 26 3192 25 3048 43 3243 41 2604 40 2893 28 2421 19 1868 15 2601 17 1569 47 2803 48 3152 46 3239 13 4908 45 3613 2 5161 1 6355 33 1442 34 2070 24 2334 12 1026 11 910
1024 -1.2523590392821029 2.2160476680530086 28.116259970411924 52 35 16 1.8066309515751191 8 2844 39 1973 9 2066 34 2083 30 2845 26 2367 43 2461 40 2124 44 2275 42 2623 18 2116 20 2209 16 1407 33 1448 21 1559
1025 0.037340994891966718 2.9704806906727641 31.233781267039063 110 79 57 1.0158271277673774 6 1266 39 495 9 2078 4 2347 5 2654 7 847 8 1024 37 1907 36 645 3 2187 34 749 38 513 32 2774 49 2040 31 879 30 1122 26 2375 25 2325 29 2219 43 2464 41 623 42 1849 28 1793 19 568 40 750 18 782 48 2214 47 822 16 488 45 2755 2 1743 1 2437 22 898 33 537 10 519
1026 13.652305583865081 3.5985560063371413 31.212384167960437 58 37 24 1.1139251742494312 39 513 9 2100 37 1921 8 1056 36 670 6 1329 38 536 32 1173 49 850 31 966 30 1173 26 961 23 788 40 704 42 595 47 844 16 516 13 1614 22 853 33 569 27 570 24 584 12 396
1028 -8.8907252979519953 3.3021945879888839 28.630572304245032 73 70 64 1.9312699355347598 4 3795 5 3473 9 2116 37 2710 6 3266 8 4282 49 2804 25 2409 18 3259 29 3398 48 755 47 3228 46 993 45 1015
1030 -6.3698589111590715 3.3815725455125452 27.521718038309722 14 14 12 0.82723232614487419 39 2079 9 2119 37 701 5 1120 8 1172 36 2000 3 2234 34 2188 38 1748 31 938 30 1199 26 1071 32 1132 23 900 29 887 43 2570 40 894 44 2362 28 1819 14 753 19 1987 18 2210 20 2950 15 2671 48 756 17 1655 47 856 35 1453 13 1693 2 1872 1 2601 22 2080 33 1475 27 1405
1031 -12.216120971953075 3.5487631179811947 26.827306469896207 80 75 70 0.71826497547533596 4 2435 5 2761 7 968 8 2966 9 2150 6 1453 39 2875 37 2050 36 1990 3 2268 34 3048 32 1220 49 2093 31 2492 30 1266 26 2472 25 2407 23 2141 29 2293 43 3313 41 2069 44 3890 39 3265 14 1947 18 952 40 1003 47 2125 46 2505 35 3164 13 1681 1 2587
1034 -2.0839312759172763 4.1180042779463681 25.646669113681625 11 9 8 0.73496105200197992 4 958 9 2207 38 726 31 2507 40 955 15 2106
1035 0.87776233609881915 4.7146282379016089 24.782075689566263 139 178 199 0.82682026612690029 4 2496 7 1136 8 3093 9 2214 5 1304 3 994 34 3080 38 1786 32 1341 49 1055 31 2561 30 3029 26 2554 25 2524 23 2202 29 2370 43 1076 41 814 41 815 37 763 40 965 40 966 44 938 28 1913 14 1994 19 2719 18 2926 20 2987 17 1711 46 1075 13 1840 45 1124 1 2774 22 2745
1036 -13.025477382217158 4.1948523442577521 23.085207883964543 28 25 32 1.8179211343240809 4 997 9 2245 34 2256 5 1258 38 825 40 1095 42 943 15 923 35 1513 23 1014
1039 -12.827158804089867 4.1536502616040059 23.066382698079067 29 23 21 1.1321913288151684 4 1001 6 3409 7 3555 8 1322 9 2252 37 2128 36 866 3 980 34 915 38 1847 32 1384 31 1118 23 1020 41 2164 42 949 28 1948 25 1116 26 1219 14 865 19 2778 15 3050 48 2360 46 1120 33 662 21 1745
1040 -12.405453850623303 4.3113151789143282 22.732242788585218 64 58 49 0.51355521570471474 4 1016 5 1275 6 1637 7 2730 8 1327 9 2255 37 880 36 928 3 1047 34 919 38 1850 32 1393 49 1029 30 1461 26 1228 25 1127 23 1073 43 1301 41 2170 40 2399 47 974 46 1130 45 1183
1041 0.56510697888456041 4.8361619185103146 24.289538993566463 106 104 99 0.48811659323369588 4 1037 5 2861 6 3426 7 2748 8 3092 9 2264 37 821 36 2108 3 996 34 930 38 785 32 1420 31 1216 30 1490 26 1257 25 1154 23 1038 29 1093 43 2664 44 940 42 866 28 919 14 1992 19 2086 18 2302 20 1155 15 2146 48 926 17 688 16 1567 33 1591 12 1156
1047 0.033701198689417636 5.1221884224748528 23.272225283644513 152 148 140 0.52091353288435049 4 3433 5 3583 6 3469 7 2793 8 3150 9 2310 3 2391 38 1823 32 2997 49 2249 31 2612 30 3092 26 2606 25 2564 29 2435 43 2680 41 2117 40 2338 44 2436 42 2057 28 1963 14 2023 19 2748 18 2329 48 2426 47 2253 16 1582 46 2577 13 4133 2 4427 1 2919 22 2203
1051 -13.296109034185125 4.6577541046641775 21.280285425079523 73 66 56 1.5305220285291183 4 2582 5 2890 9 2334 7 2822 7 3597 37 2794 3 2427 34 990 39 922 38 2530 49 2226 43 2808 43 3419 44 3358 41 2788 48 2409 46 2606 35 3268 45 2944 24 1791
1053 -1.5681765292448573 5.8301817315031172 19.920646566139933 98 97 96 1.687530585348431 5 2969 9 2368 3 2491
1054 -1.5927916263148976 6.1514393390790527 19.860020135710087 96 93 90 0.71739561710837207 5 2979 9 2387 4 2698 6 3566 3 2495 48 1141 46 1272 35 1737
1057 -9.408289785403376 6.497749285231003 18.522458540118112 175 130 97 0.62499210872616562 5 1649 7 2966 9 2473 3 1320 37 2386 32 3171 41 1238 44 1378
1059 1.3104173052998327 4.0122764814113276 11.510801868851505 96 69 49 0.43544703326023637 9 2511 43 2796
1062 -11.746443280283273 6.4626994727299687 18.284503319190957 147 95 58 0.89786094245562031 4 2835 5 3027 9 2547 6 3661 7 3046 37 2369 36 2397 34 2419 48 1199
1063 -10.413197292233001 6.5786920481222229 18.184126685975031 163 114 74 1.2312146530230408 5 3181 8 3476 9 2550 6 2217 8 1911 36 2405 37 2378 3 1386 38 2127 32 1872 31 1522 29 1332 48 1326 46 1396 1 3419 45 1484 33 1705
1065 -8.7946854108423729 6.3753269974984885 17.367576443427669 160 113 77 0.52496989991549281 6 3838 7 3064 9 2557
1066 -8.8043489315575965 6.7917487879127929 18.409294139791584 153 102 66 0.88334734055751207 39 1285 9 2564 30 1855
1068 -7.5654357821976417 6.8885401049352737 18.282557714704058 122 81 52 0.76075524948183348 5 3753 9 2571 34 3224 32 3258 31 2865 20 3149
1069 -7.4627899695817241 6.921536567890203 18.371985923960118 117 78 49 0.78994074508494727 5 3204 9 2572 35 2036 45 1527
1071 -0.43045664369424919 7.0413781643403253 18.432106347348856 121 78 48 1.0258454637170862 4 2888 5 3098 9 2586 7 3089 6 3733 3 3163 38 2040 30 3403 26 2918 25 1580 23 1395 29 2659 41 2288 28 1181 14 2728 19 2293 18 2491 15 2354 47 2467 20 2614 16 1752 46 2818 35 2063 13 2455 45 1561 1 3562 22 2415 33 1743 27 1616 24 896 21 1930
1072 -0.40657260515570259 7.0799386829969952 18.395794056595509 93 51 19 0.84248195354151545 6 3734 9 2587 37 1163 38 2041 30 2045 26 1675 25 1581 29 1513 41 1131 44 1279 28 1183 14 2242 19 2294 15 2355 17 1081 47 1282 16 1753 46 1483 45 1562 22 1401 33 1744 21 1153
1073 -0.22565742400468947 7.1126498858123934 18.546560871043756 117 76 46 1.1577187703403553 6 2143 9 2588 29 1522 43 1523 41 1134 14 2729
1074 -7.5706505997423026 -12.0806298402954 27.358098589972911 226 223 208 0.89915353037297974 39 2593 9 2664 32 3423
1075 -8.1441259308057852 -5.1193137803086461 29.363727411278798 172 167 148 1.0279551669069875 4 3217 5 3370 8 3726 39 3192 9 2790 7 3355 3 2878 38 2771 34 2865 32 3533 49 2703 31 3086 30 3657 26 3141 25 3008 23 2649 29 2903 43 3608 41 2980 40 2817 40 3256 44 3570 42 3225 28 2356 19 3030 18 3181 20 3255 15 2948 17 2619 47 2725 35 3866 13 4832 45 3552 2 5087 1 5166 22 2970 27 2058 24 2282
1076 -3.9954009442702278 2.3629374869999911 28.907089648618776 24 9 6 1.4719221438746928 39 2812 9 2869 31 3154 30 3737 26 3196 29 2966 41 2610 19 3087 20 3306 21 2094 11 1438
1078 -8.6161689528030578 3.5860540298736834 27.911926425958779 103 103 93 0.86220789404438081 4 3350 5 3491 6 4200 8 3865 9 2931 36 1996 3 2271 34 2184 38 1747 32 2876 49 2096 31 3205 30 2952 26 3236 25 3113 23 2748 29 2301 43 2601 40 2283 42 1980 28 2474 14 2911 19 2690 20 2947 15 2670 15 3013 48 2323 47 2077 16 2059 46 2449 13 4006 12 1432 21 787 11 974
1079 -8.8623934223659795 3.8725854665370485 27.105371984329814 132 124 115 1.1353162117340987 4 872 7 974 39 2877 9 2933 37 2052 36 1998 49 2834 31 1027 30 1270 26 1065 25 1072 41 3049 40 2971 28 2472 14 1952 48 2322 47 914 16 2623 46 2507 35 3210 2 1871 1 2595 22 2123 33 2475 27 2107
1080 -8.4152185877332215 3.6402314307030044 27.726549356685496 15 15 11 1.126621916695498 4 4019 8 4293 9 2934 36 3274 34 3049 31 3739 30 3785 26 3237 25 3462 23 2750 29 3024 44 3250 42 1981 28 2855 14 2912 19 3111 20 3339 15 3203 48 3884 2 5214 1 5474 33 2476 10 1165
1083 16.677593554604538 4.9438235779117825 25.508588407491427 152 139 125 1.0609397223468828 8 3905 39 2860 9 2971 37 2721 36 2045 4 2512 6 4242 38 1763 32 2958 25 3140 23 2789 29 3433 48 3250 35 3248 45 2891
1084 16.644265294195083 5.3050488175348622 24.598453868307161 88 79 64 1.1065763851909771 4 3411 8 3938 39 2869 9 2977 37 2080 34 3522 5 3569 25 3481 26 3613 29 3442 40 2235 44 3223 20 3343 17 2330 23 3114 16 2076 13 4090 48 3254
1085 -14.212525615099038 4.2085267011679726 23.272179635530488 117 105 92 1.3623780736747702 4 2526 5 3541 6 4244 9 2981 37 2767 36 3114 34 3089 38 1844 32 2969 49 2177 30 3003 26 2581 43 3366 23 2176 41 2736 40 3352 3 3039 44 3697 4 2522 6 1612 42 3089 19 2773 46 3348 35 3262 13 4052 45 2899 2 4354 1 2726
1088 -12.454991233961428 4.2670304180128431 22.845717745629379 26 21 12 0.97019513745015729 4 1015 8 3077 9 2988 5 1272 39 880 6 1634 37 2132 36 2131 3 1046 38 1849 32 1392 31 1189 30 3076 26 3283 25 2510 29 1072 43 1300 41 2168 40 1100 44 2501 28 1951 14 869 18 3281 15 2180 19 2101 48 974 17 1761 16 2138 27 1847 10 1690 21 1747
1090 -12.331036945412396 4.2747568235497049 23.264287040593 22 18 15 1.2274075302000822 4 2533 5 2851 6 3415 7 2731 9 2990 37 886 36 2094 3 3051 34 2263 32 2985 49 2858 31 2543 30 3012 26 2599 25 1132 29 1077 43 3372 44 1034 14 871 19 2780 18 2973 20 2395 48 2363 17 1763 47 2185 16 1579 35 1594 13 1807 2 4368 1 2739 22 1132 33 665 27 1474 12 1170
1093 -12.396944999424985 4.7411590306456235 23.496471389808381 49 45 36 0.76415057846774015 5 3576 6 4275 9 3011 4 3422 3 3052 32 3711 45 2913
1096 -8.7664622218045487 4.8738890218955033 22.184131778599362 88 83 79 1.4566662761298292 4 3426 5 2902 6 3457 7 2782 9 3015 8 3141 37 3111 32 3024 49 2236 31 3290 30 4176 23 2229 29 3450 43 2742 41 2177 38 1891 42 3094 28 2558 14 2053 18 3285 20 3558 15 3218 48 981 16 2635 46 1208 17 3000 22 3240 27 2147
1097 0.43777806622743876 5.1197137397191881 23.282711432664566 199 198 187 0.55943487571859674 5 3585 6 4279 8 3950 9 3020 37 2761 36 2785 34 2295 38 1826 32 2999 49 2254 31 2622 30 1492 26 2613 25 2568 23 2234 29 2437 44 3289 42 2047 28 917 14 2632 19 2084 18 2305 20 2364 15 2739 48 1004 17 2398 47 994 16 1585 46 1155 45 1209 2 2142 1 2922 22 2205 33 1607 21 1758 11 1315
1098 0.72869160808803901 5.188400452822127 23.157381542023451 109 107 100 0.65974111449519457 4 3437 5 3588 6 4283 7 3589 9 3022 8 3158 37 2787 36 2151 3 2402 32 3041 49 1143 30 3102 26 2652 25 2571 23 2240 43 3334 41 2708 40 2350 44 3293 14 2639 18 2979 20 3019 15 2743 48 1013 17 2400 47 1054 16 2132 45 1217 2 2148 1 2924 33 2147 12 1477 10 1214 21 1761
1101 -12.032627266352703 4.9706108935062403 20.903376975557748 61 44 37 1.0441575107193786 5 3597 6 3509 9 3039 37 2811 36 2818 32 3758 31 2648 30 1541 25 1258 23 1137 28 943 19 2141 33 1624
1102 -1.6209257253781515 6.1816793294864647 22.735422995490516 94 92 89 1.9292971219688577 5 3600 9 3048 3 2473 4 2651
1103 -12.077493997914559 5.2608603514551433 21.271849079573808 37 30 24 0.75334746254859164 4 2639 5 2940 9 3058 6 3511 8 3211 7 1252 36 1047 37 1011 3 2466 32 3065 31 3305 30 3869 25 3505 23 3130 29 3448 14 2659 19 2143 20 3395
1104 -12.079230981393341 5.3315452028748007 21.210814325548853 70 63 53 0.60880024059555604 4 2640 6 4318 9 3059 36 2822
1105 -1.329525152529758 6.1114926846597877 19.925695221834349 40 91 126 0.14846975761622497 5 3631 9 3078 45 2989
1107 -0.84638266536128104 6.0477172790112457 20.096785643054158 102 166 218 0.55429251832656534 5 3632 7 3620 9 3081 8 3989 4 3473 6 4336 36 2830 34 3139 49 2909 30 3202 25 2626 29 2506 44 3707 28 2019 14 2665 23 2282 19 2808 18 3006 39 2965 20 3067 15 2771 17 2426 16 2151
1108 -0.84566330971016224 6.0461865992198947 20.086818579281204 102 166 218 0.61664342164793706 5 3633 7 3621 8 3990 9 3082 6 4337 4 3472 34 3138 32 3098 30 3201 26 2712 25 2627 29 2505 43 3409 36 2829 40 3044 44 3706 23 2281 28 2018 14 2664 19 2807 18 3005 20 3066 15 2772 17 2427 16 2150 46 2649 33 2160 21 2187
1111 -12.861620508166656 6.1321772392734886 18.497572693827728 99 73 47 1.1923277675349326 4 3492 6 4362 9 3102 36 2876 31 2702 30 3223 22 2832 7 3636
1112 -9.54978503724689 6.1246226202216487 18.06087353727138 107 75 52 0.19444217198463107 5 3676 9 3114
1114 -13.066689237211229 6.4329144967985092 18.201583232687778 164 118 82 1.3114777957006283 4 2822 5 3015 6 3806 9 3156 7 3708 37 2917 36 2924 8 4091 34 2410 8 1870 38 2108 32 3141 31 2769 31 2771 30 1794 30 3283 26 2769 26 2770 25 2676 23 2387 29 2550 48 2534 46 1366 35 3474 13 2281 2 2498 1 3371 24 792
1115 -13.131422813525745 6.5382560044994049 18.184160768321156 136 97 66 0.97223348382550068 5 3741 7 3044 9 3159 4 1352 8 3461 37 2918 36 2927 3 3196 32 3230 31 2770 29 2549 48 1320 47 2417 46 1368 35 3475 13 4420 45 1467 2 2497 1 3370 34 1287 24 1931
1116 -12.926301711082393 6.5764604162234308 18.220484461650543 135 93 62 1.6706101429686415 5 3742 9 3160 6 4430 37 3191 8 4410 36 2928 7 4027 30 3285 48 3758 35 3477 2 4575 24 1934
1117 -10.769389186938907 6.3954189946846496 18.292632902360019 201 152 112 0.57213096528743956 4 2843 9 3163 3 1310 34 2429 31 1510 26 2784 25 1410 29 1329 28 1067
1118 -10.819239333518421 6.472736614803507 18.340270595860122 164 115 74 0.88543110199952957 4 3543 9 3164 23 2897 26 2787
1119 -9.681349585449734 6.7458052281692842 18.286300497787014 138 93 61 0.87474679733266214 5 3748 8 3487 39 3048 9 3172 7 3063 4 2850 37 2903 36 2415 34 3221 38 2137 30 3303 48 2666 47 2437 46 2758 35 3493 13 4302 45 3121 2 2560 1 3433 24 1943
1120 -8.8705410530334774 6.8737269230687685 18.323516171902131 126 86 58 1.1522210424412531 39 3061 9 3176 37 2909 8 4106 6 4441 36 2937 38 2657 49 2459 30 3309 19 2916 29 3146 46 2763 48 2670 13 4435 45 3126 2 4713
1121 -8.3307044371500591 6.599586413543383 18.22653614029764 144 100 67 0.77865630188911994 4 3555 6 4381 9 3180 8 4108 37 2911 3 2577 32 3251 44 3759 33 1723
1122 -8.5256362360002562 6.9324316594792927 18.438790246525734 129 89 59 1.3499602546423657 4 3582 6 4444 7 3726 9 3181 36 2939 3 2653 31 3378 25 2768 29 2574 33 2231 10 1576
1125 -5.6245434064400284 1.7109193525674058 26.721929805109262 117 117 117 0.6067399386283846 4 3768 5 3894 6 4571 7 3902 8 4269 9 3346 37 3059 36 3068 3 3390 34 3480 38 2817 32 4007 49 3151 31 3538 30 4130 26 3574 29 3388 43 3645 41 3014 40 3302 44 3615 42 3023 28 2828 14 2887 19 3082 18 3235 48 3665 17 2660 46 3237 48 3150 35 3921 13 4906 45 3611 2 5162 1 6353 22 3004
1126 -5.62416922650735 1.7107019298480206 26.720818186776199 117 117 117 0.61542502954677425 4 3769 5 3895 6 4572 7 3903 8 4270 9 3347 37 3060 36 3069 3 3391 34 3481 38 2818 32 4008 49 3152 31 3539 30 4131 26 3573 29 3387 43 3646 41 3013 40 3303 44 3614 42 3022 28 2827 14 2888 19 3081 18 3236 17 2661 46 3238 48 3151 35 3922 13 4907 45 3612 2 5163 1 6354 22 3003
1127 -6.8258443023517232 2.1525203681692346 27.960475710766548 34 30 27 0.9225464306988016 4 4005 6 4765 7 3439 8 4494 39 1957 9 3354 40 2922 14 3055 18 3417 19 3297 17 2891
1129 -13.900180101176913 2.8041093145604674 28.924714065370811 41 29 17 1.679244871287942 7 3911 39 2075 6 4168 5 3472 37 3082 3 2973 4 3794 38 2847 31 3178 26 3582 29 3397 40 2953 37 1937 47 2071 35 1438 2 5182 1 5383 22 2676 27 2096 24 1662
1131 -8.7211575648419206 3.3589195893933104 28.433515798378536 22 21 19 1.3585869278380325 4 3796 7 3477 8 2972 9 3373 37 2711 36 1994 31 935 23 2083 29 2989 28 1818 6 3267 14 2566 15 819 46 2446 13 4005 45 3658
1132 -12.327805770475925 3.4701006208559915 26.899647927061867 33 29 28 0.74518476695849512 6 4198 39 3566 9 3390 4 3347 8 2965 37 2727 3 3424 31 3583 30 4154 26 2471 40 3536 14 2579 32 2869 48 3210 47 2123 46 3709 35 1443 13 4956 2 5211 1 6725
1133 -0.10553193594015248 4.5188240245483229 25.301212769005428 116 121 117 1.7554637747638866 39 2881 37 3279 4 3376 6 4612 7 3530 36 3382 3 990 38 3060 9 3400 49 989 43 2613 15 3026 48 2371 5 2819 46 1070 35 3223 45 4096 1 2760 22 3046 24 1764 21 2142
1136 -14.075656408249442 4.4471318510229123 22.959920019897464 99 80 63 0.8667633318195439 4 3392 5 3943 7 3963 8 4323 9 3422 5 3543 6 4247 32 2973 49 2880 30 3066 23 2217 29 2405 43 3709 38 2881 39 2934 37 2124 41 3081 20 3032 48 2410 13 4119 46 3350 2 2110 1 5573 24 1788
1137 -12.67707837851264 4.3359768145571707 22.691763062368913 18 14 13 0.48185876010600298 4 3835 5 3552 7 3955 8 4313 9 3426 6 4250 8 3916 32 3709 31 3256 30 3837 26 1220 25 1126 29 2412 28 1947 47 2871 2 4415
1140 -14.122396683865285 5.1557627751276272 19.891977518611906 114 105 91 1.0192198229343092 4 3854 39 3328 9 3441 34 3772 38 2905 49 3224 31 3620 26 3314 40 3400 48 3285
1141 -14.0012448215015 5.3478080556655652 19.304827370890148 81 64 46 1.127465037152144 4 3855 5 3984 39 3471 9 3446 37 3148 36 3147 7 3986 3 3470 34 3555 38 2910 32 3768 49 3225 31 3627 26 3332 30 3883 25 3186 29 3099 28 2570 35 4029 48 3287 13 5012 45 3731 2 5276 1 6462 33 2157 24 2433
1142 -1.3141155795042208 6.2157078216009314 19.501594000195158 29 81 118 0.83640529152339815 4 3860 5 3985 6 4650 7 3619 8 4346 9 3448 37 3132 34 3781 32 3114 30 3915 26 3352 23 3137 29 3130 41 3266 44 3905 28 2591 14 2679 19 3166 15 2783 17 2446 22 2279 27 2161 24 2439 12 1495 11 1327 11 1480
1143 -12.61411724166185 6.1737287254940068 18.576029772225315 104 72 51 0.8261536389312385 4 4045 9 3463 5 4002 23 2862 48 3314
1144 -7.0158797698009581 6.4583819551763737 18.577440427860811 89 60 39 0.82827418634790018 5 4025 8 4370 9 3471 37 3158 38 2913 32 3817 31 3347 42 3149 47 2971 41 3146
1148 -12.397146193736532 6.6053786994011787 18.234267713466252 136 92 59 0.81740307228605946 4 3897 7 4028 9 3498 37 3194 3 3531 34 3600 38 2958 31 3338 26 3362 25 3255 28 2599 48 3379 47 3012 35 3480 46 2726 13 4266 1 5736 24 1936
1149 -9.5533120862214638 6.8509510131879985 18.349623056374888 94 56 29 0.65891253342963818 4 3931 8 4102 9 3502 6 4439 37 3199 3 3206 38 2951 26 3410 47 3021 46 3435 35 4081 31 3376 45 3811 2 5362 1 6535 33 2228 24 2495
1150 -8.1518560546466645 6.6900445964207007 18.618392140036939 237 203 176 0.36545364779219003 5 4173 6 4825 7 4164 8 4575 9 3508
1151 -7.1061833030605106 6.8465823603741596 18.363898062621679 106 61 30 0.65988771375662536 5 4054 9 3511 30 3935 26 3416 25 3262 29 3157 19 2902 2 4621 1 5800 24 1953
1153 14.184091111713705 -6.4433131865332287 28.962603470340834 131 125 111 0.42165810167744133 39 3412 9 3559
1154 -0.98958913992539832 2.5750048622290929 27.901950113695165 28 12 4 1.0348556331317151 39 3432 9 3591 37 3265 36 3073 34 2999 31 3726 30 4303 29 3390 43 3649 40 3306 44 3866 42 3026 28 2831 14 3158 19 3298 15 3188 17 2893 16 2611 22 3019 33 2052 10 1867 12 1915 11 1612
1157 -9.8672745050694228 5.344826331537007 21.685681355360327 105 101 100 1.7719446767568412 6 4641 9 3623 7 3599 37 3300 5 2944 6 3515 4 3456 36 2177 3 3086 9 3043 34 3901 38 3076 32 3072 30 3870 31 2651 23 2265 29 3093 41 3263 40 3561 28 2557 15 2228 48 3714 37 3299 46 1205 35 3303 35 4021 13 4160 13 5567 45 4119 2 5265 1 5614 24 2958
1158 -8.6578071932860343 5.3025914428076533 22.207760012320865 79 75 68 1.4899391462323215 4 2643 7 2836 8 3189 37 2178 38 927 32 3028 31 2653 30 1552 23 3131 29 2465 23 2835 41 2210 40 1137 19 3160 26 3625 20 2428 17 1817 47 1035 46 1210 35 3305 13 2036 45 1268 2 2229 1 5587 33 2154 27 775
1159 -10.576140419862142 6.4137706691123073 18.395815111104064 172 127 87 0.54114770826579583 4 3899 7 3999 9 3640 31 3342 26 3370 25 3220
1160 -4.8964936118979407 6.8220636218102726 18.566334534742158 170 126 97 0.48756184503186245 5 4175 8 4554 9 3641 3 3644 32 4233
1161 -4.8964936118979407 6.8220636218102726 18.566334534742158 170 126 97 0.48756184503186245 5 4176 8 4555 9 3642 3 3645 32 4234
1162 12.918601729648961 7.3973470859521795 18.544240708234948 89 59 34 1.3367131068979474 8 4567 9 3649 3 3666 31 3865 23 3303 43 3691 41 3248 42 3291 7 4246 14 3188 19 3335 15 3313 17 3002 47 3303 13 5401 22 3402 12 1946
1163 -13.956770689462227 6.3661931409177193 18.162214622859597 98 85 76 0.85542107046917415 5 3998 6 4840 9 3651 37 3332 36 3322 3 3669 34 3577 32 4079 49 3241 31 3640 30 4202 26 3360 25 3519 48 3735 47 3310 46 3415 35 4075 13 5038 45 4160 2 5641 1 6484 24 2449
1164 -10.866745843882709 6.5983928398841467 18.214289307827432 137 88 47 0.46670749294416181 4 4058 9 3654 37 3324 36 3324 38 3116
1165 -8.7491822335859286 6.6584223638846218 18.617543746535709 229 191 162 0.3539059594922464 5 4020 7 4003 8 4570 9 3660 37 3180 39 3362 36 3182 3 3502 32 4088 49 3257 43 3886
1168 -13.627929777465688 4.5945205493571848 22.565211597555823 56 53 47 1.8215740466766457 4 4240 6 4885 39 3731 9 3720 36 3480 3 3711 34 4002 38 3356 25 3635 40 3812 44 4216 20 3673 47 3507 5 4255 46 4129 35 4328 13 5362 2 5610
1169 -14.05435934966199 5.6678782532906489 18.287338870654605 109 102 92 1.6649891132211863 4 4044 5 4266 7 4234 9 3729 37 3425 25 3739 8 4775 23 3140 6 4653 48 3911 45 4132
1170 -13.264654312177884 6.2636211705689142 19.808811257295758 50 35 29 0.15934443295409251 9 3730 38 3228
1171 -2.0616575225349547 6.7696001105115835 18.630164415682042 111 76 46 1.1271033133229398 4 4063 8 4558 9 3733 3 3649 38 3089 41 3377 36 3418 44 4055 48 4089 46 3951 2 5649
1172 -0.69353544297760616 6.8588074375647041 18.657381536414778 108 72 45 0.94755619490340082 5 4280 9 3735 7 4244 43 3965 40 3688 44 4166 39 3697 47 3411
1173 -14.039086036572924 6.2082663096675814 18.27003496862428 74 60 51 1.4464747930548274 5 4167 9 3739 4 4142 8 4733 9 3834 36 3421 36 3499 3 3640 31 3856 30 4332 26 3892 23 3378 48 4083 35 4040 13 5037 45 4159 1 6785 24 2789
1174 5.417508090607881 7.7406275344394455 18.500771617027041 51 29 17 0.96487320437647295 39 3476 14 3116 24 2985
1175 12.927820922146321 -13.999911028518495 26.619051593682951 208 202 178 1.0603513301515968 39 3602 9 3758 37 3441 38 3127
1176 12.863681278578341 -13.951652157414022 26.502184733566647 208 202 178 0.48516433161332967 39 3603 9 3759
1177 -8.4790598037124454 -9.559537960607047 27.769200040528517 132 126 105 0.90670825892586127 39 3626 9 3774 38 3269 19 3492 20 3760 35 4572 2 5855 22 3481 33 2881 27 2550 24 3034 10 1971 21 2680 11 1767
1178 -8.4797507133632077 -9.5626947109111331 27.771861986881298 132 126 105 0.8357827733236155 39 3627 9 3775 19 3493 20 3761 2 5856 22 3482 33 2882 27 2549 24 3035 10 1972 21 2681 11 1768
1181 -12.379703001644559 4.5513017929808504 22.369649965845905 16 14 15 0.56664445922674977 4 4241 6 4979 7 4340 8 4718 9 3814 37 3491 32 4373 31 3832 32 4282 30 4410 26 3878 25 3734 23 3263 29 3709 28 3041 19 3531 47 3508 27 2322 10 2019
1182 -12.263831672280679 4.6879124086611625 23.146812014415193 52 49 40 1.4393701748653283 8 4719 9 3815 37 3399 6 4980 3 3448 34 3540 34 3894 6 4886 38 3210 32 4375 31 3930 26 3970 23 3439 29 3786 40 3675 14 3303 18 3662 20 3810 15 3446 48 3706 17 3147 16 2875 46 4132 13 5364 2 5613 1 6437 22 3061 10 2087
1184 -3.0499589062490138 6.8674219742773159 18.506424195214795 138 95 63 0.80385043932704092 4 4150 9 3823 37 3310 7 4167 3 3515 3 3738 49 3512 41 3281 40 3416 14 3111 20 3702 18 3629 19 3538 15 3239 48 4088 17 3009 16 2843 27 2479 10 2040 12 1953
1187 -12.335015259300807 4.1290051044722214 26.601471818485482 91 87 78 1.4566080972712392 4 4233 5 4392 6 5049 7 4419 9 3859 3 3822 17 3144 16 2899 33 2954
1188 -12.136184063509598 5.9942863234202584 18.445152718743007 110 105 99 0.8702075295273296 4 4280 2 5902 24 3091
1189 -9.6103272686917602 6.4314787508282469 18.721319586824961 120 84 55 0.79346668862350667 6 5031 7 4399 8 4780 9 3869 3 3885 48 4154
1191 -2.839927445878617 6.8110337910989234 18.819426525191684 108 73 43 1.6000344226121164 6 4996 8 4743 9 3874 46 4152 13 5707 2 5813 24 3094 10 2037
1193 -13.497173808828562 3.214593831859812 27.682755426871061 76 72 60 1.9595231078137032 4 4304 6 5048 7 4418 8 4801 9 3884 5 4391 6 5016 7 4384 9 3856 36 3542 3 3898 34 4058 31 3977 30 4528 49 3605 26 3962 41 3509 41 3526 40 3833 40 3846 47 3554 47 3622 46 4244 35 4698 35 4644 13 5748 24 3130 24 3173
1195 -9.8918219922592758 4.8377253625299277 22.101964720374756 23 24 26 1.049554999135115 5 4422 9 3890 3 3878 34 4063 32 4419 49 3616 47 3568 46 4251 35 4704 2 5991 1 7104 24 3178
1196 6.2137668284088665 7.2961082726028952 18.824470258884269 86 54 29 0.44913758819030131 5 4427 8 4811 9 3892
1197 5.7112283597672793 7.7772995193809349 18.608977093591509 55 32 18 0.44860675353088364 5 4430 9 3895 3 3908 17 3179 21 2811
1198 -4.3869984802857385 4.0916678024016031 26.906913156281391 101 97 94 2.0150971355580052 4 4315 6 5069 9 3903 8 4835 37 3568 49 3641 49 3655 30 4576 8 4802 15 3472 47 3646 45 4559 22 3566 10 2104 12 2162 21 2780
1199 0.12763729681495195 5.1448686289383616 23.3072398515272 186 182 175 0.58154920497752871 4 4320 5 4444 6 5074 7 4437 8 4818 9 3907 36 3568 3 3916 34 4076 32 4452 49 3644 31 4019 30 4578 26 4059 29 3870 43 4115 41 3528 44 4227 14 3338 20 3899 48 4201 47 3630 16 2914 46 4269 35 4724 13 5802 45 4540 2 5992 1 7149 22 3607 33 2990 27 2681 24 3179 10 2121 12 2163
1200 0.12339224235523796 5.1403810122464009 23.27619245253927 186 182 175 0.58597946488257535 4 4321 5 4445 6 5075 9 3908 36 3569 3 3917 34 4077 31 4020 29 3871 44 4228 20 3900 47 3631 46 4270 35 4725 13 5803 45 4541 2 5993 1 7150 24 3180 10 2122 12 2164
1201 -14.174650579196305 4.7525568215983096 21.251077687091872 106 99 89 1.095694249165923 4 4322 5 4446 8 4819 9 3926 37 3573 34 4089 30 4579 26 4037 23 3525 25 3899 29 3856 29 3873 41 3560 22 3592
1202 -14.000601454451981 5.9986955678615566 18.503152840093321 62 46 33 1.3114079479970171 4 4323 5 4449 6 5095 7 4452 8 4839 9 3927 37 3576 36 3577 3 3918 34 4094 38 3409 39 3793 32 4455 49 3660 31 4042 30 4581 26 4060 29 3875 48 4205 47 3609 46 4254 35 4708 13 5806 45 4523 2 5995 1 7153 24 3184
1203 16.537244999159213 7.7188579090178733 18.153815653401558 133 127 115 1.8892590266911746 39 3792 9 3929 25 3921 23 3545 43 4135 40 3852 20 3905 48 4221 47 3653 35 4732 13 5822 2 6016 1 7172 22 3626 18 3722 24 3204 24 3220 10 2140
1204 -8.4018746816772616 4.1620822775875723 26.968707063648289 128 119 112 1.470274084048721 4 4348 5 4471 6 5110 9 3937 37 3603 36 3599 3 3947 34 4105 38 3434 31 4055 26 4093 23 3538 26 4079 29 3900 44 4262 42 3642 28 3337 14 3366 19 3635 18 3731 15 3500 48 4227 35 4764 1 7203 22 3631 33 3009 27 2706 24 3235 44 4275 11 1853
1205 16.639634654860586 7.1997006996651232 18.43348184649814 139 133 119 1.9606396699391671 39 3775 37 3589 36 3586 3 3934 38 3424 49 3659 25 3934 4 4354 23 3558 43 4118 41 3546 40 3870 42 3614 14 3358 18 3721 15 3492 48 4234 17 3206 47 3651 46 4296 35 4731 13 5820 13 5842 1 7170 22 3634 10 2154
1206 -14.094140379481956 5.117286818188524 19.47446204153017 101 94 84 1.7943776014101558 39 3824 9 3954 36 3604 34 4126 32 4491 49 3696 31 4058 30 4610 46 4311 2 6054
1209 3.3246719562794702 6.3525535390649939 20.374503090053402 20 106 157 1.7633735459293582 7 4489 8 4867 3 3969 34 4128 38 3454 4 4377 46 4330 41 3576 45 4578 33 3028
1210 -13.515070448145996 4.022237407392752 26.168883553150724 32 30 33 1.6653787541505762 4 4406 5 4526 6 5162 7 4519 8 4899 9 3986 3 3994 34 4156 32 4516 31 4096 30 4646 25 3968 29 3934 28 3381 14 3411 18 3768 22 3670 33 3053 10 2204 12 2232 11 1900
1211 -13.523407231371245 4.0241379595953815 26.179080522613777 32 30 33 1.635918239503416 4 4407 5 4527 6 5163 7 4520 8 4900 9 3987 3 3995 34 4157 31 4097 30 4647 25 3969 29 3935 28 3382 14 3412 18 3767 22 3671 33 3054 10 2205 12 2233 11 1901
1212 -11.137944801396422 6.5058347889558208 21.691385703724393 138 131 125 1.5357235705698757 5 4535 6 5172 7 4526 8 4906 9 3997 21 2899
1214 -8.9116667580048698 3.5773664110658228 27.175770467544172 120 115 110 1.576625856745677 39 2112 5 1113 8 1163 6 1458 9 820 39 2113 7 2627 3 903 34 820 31 1022 25 972 23 894 42 1978 42 1979 28 2470 14 747 14 1950 19 1984 20 2304 48 835 48 836 47 912 46 2445 45 1014 1 2592 33 1511 27 1816
1215 -8.9775882309820538 4.7469056734076256 22.382221474805014 20 16 13 0.79890058768206851 4 3841 9 3428 6 3455 7 2781 9 3014 8 3137 37 3110 36 2140 32 2988 49 2886 31 2609 30 3083 26 3306 25 2557 23 2818 41 2747 44 3319 20 3042 14 2940 15 2751 48 980 17 1792 13 1938 45 3708 2 4423 1 5586
1217 -1.6635596567739879 3.3129294717281303 29.985497114559976 87 83 82 1.3586247495190447 4 3330 39 2035 7 2579 8 3843 9 2905 39 3247 4 3803 37 2691 36 1953 36 3084 3 3417 34 2140 38 2420 32 3627 31 3184 30 3764 26 2433 25 2370 23 2048 29 2997 43 3276 44 3211 44 3633 42 2647 28 2446 31 3568 14 2538 19 2672 18 2892 20 2272 20 3322 19 3096 28 2841 15 2643 15 3000 48 3185 47 861 47 3233 16 2039 46 3302 13 3941 45 3670 1 6385 22 3018 19 3306 33 2467 24 1689 10 1646 12 1639
1218 -13.970644453678487 4.761101638991958 21.701849439001208 91 70 55 1.1786139080649158 4 4029 5 4152 6 4792 7 3974 9 3620 8 4336 5 3957 37 3294 36 3285 3 3630 34 3547 38 3075 32 4055 43 3962 40 3558 44 4051 46 3740 35 4017 13 4986 2 5241 1 6744 24 1786
1219 3.0276901127122211 7.0110174674883439 18.589094127924152 95 58 32 0.89699700183478559 39 3696 5 4375 7 4410 9 3828 8 4643 39 3591 6 4909 8 4747 37 3420 36 3405 3 3741 3 3849 34 3921 38 3225 32 4306 30 4428 23 3389 29 3722 26 3901 41 3466 40 3686 44 4050 42 3439 28 3154 14 3278 20 3571 48 3932 47 3413 16 2736 35 4362 45 4146 22 3420 27 2485 24 2800 21 2611
1220 -6.4313918478048047 -3.1292836257110226 17.245806077104053 235 233 221 1.6108882258441977 5 627 9 432
1223 2.5358368613802971 5.9109245483697448 17.810405913167259 122 150 187 1.4441366449332129 9 1127 29 1275
1224 -4.836717744264412 2.1883226698474036 29.510947884757517 35 24 16 1.6570793121091236 4 2336 7 835 8 2831 9 2052 5 3445 6 4132 37 1899 36 1891 3 2176 34 733 38 2380 49 2757 23 3078 29 2198 43 3244 40 2894 44 3168 42 1840 28 2423 14 2505 18 2860 17 2665 46 3265 33 2043 24 2352 10 1429
1229 0.59954085454811012 -4.559083788923779 8.5495788667292043 166 160 136 1.8123377690803855 6 16 37 21
1230 -10.864297441852605 -13.746664415731633 27.183130205667265 206 205 187 0.91140406289976639 7 1796 37 30 47 169
1231 11.243223566668741 -11.42305986286598 27.446669994668955 200 195 175 0.91824967750366482 4 212 9 195 37 113 6 2610 3 255 49 233 30 220 23 165 29 1738 25 1804 43 1903 41 1424 40 200 44 1615 19 1486 42 1397 48 191
1232 11.18785189447653 -9.4720719608202231 28.072133307543528 197 192 171 0.24487293201435575 8 416 37 166 36 1539 3 311 5 418
1233 1.6644842076499342 -8.7014378880581678 28.545232117905133 165 159 142 0.55270852241293544 8 445 37 189 9 303 3 340 18 348
1234 -7.9302788754568523 -7.7494265087352758 28.459214883605551 175 169 150 0.77658718945868821 8 496 37 210 5 503 31 387 42 1533
1235 11.097883865177401 -8.111103279727562 28.369169176468439 176 171 152 0.29113647609302379 8 466 37 225 36 294
1236 12.256648444006213 -7.6874425546350409 28.068636363828393 195 190 168 0.96408320167787454 9 1762 37 233 36 305 46 616 37 3000
1237 11.905090466600875 -7.5220666582287157 28.187721923085761 191 184 165 0.86095145746911472 4 350 6 593 7 391 8 537 37 234 36 299 3 1894 34 380 49 450 31 366 26 427 41 258 44 215 42 253 29 410 28 418 14 328 18 388 20 453 15 373 48 366 35 849 13 873 1 5068
1238 11.908291444520167 -7.5277126271792474 28.193664040219346 191 184 165 0.74377755331183781 6 594 7 392 8 538 37 235 36 300 34 381 4 351 31 365 26 428 44 216 41 259 42 252 20 452 15 374 48 367 13 874 1 5069
1241 11.96396768512602 -6.9830880572051246 28.335711159216768 228 221 202 0.88278384798158593 5 2349 37 274 6 2875 36 337 25 420 29 416 41 262 28 427 14 333 19 232 20 493
1242 -7.8936990512739102 -6.8550210915954501 28.651335771164806 207 200 181 0.70011829513194546 5 546 6 626 8 559 37 285 36 1643 32 2461 34 1755 49 468 31 428 42 1582 40 1866
1243 -7.8844797455768711 -6.5231598569414437 28.673986493923948 234 230 214 0.69754244005140498 5 2356 37 288 4 2021 6 2888 7 2202 3 1904 49 1748 43 2144 40 414 44 1895 48 1920 46 2186 35 875 45 2414 1 1382 8 2544
1244 -3.1489825150231989 -6.7111373434700159 28.995217333963037 200 195 176 0.35193832486438853 6 684 37 294 7 449
1245 -3.248095404120924 -6.1929366200431399 29.273746532914142 174 169 150 0.77151299062497947 5 593 37 298 15 431
1246 -3.2373235050746278 -6.1420560390128465 28.963381737125864 174 169 150 0.31946739154228437 5 594 37 299
1247 1.4659653259024807 -6.3669459467424376 29.027498849329806 173 168 149 0.040938613506418212 6 691 37 301
1248 10.970008310468904 -5.1138938090756403 29.37860396897565 168 162 142 0.32908147801485843 9 457 37 327 6 769 3 518 8 680 7 511 5 658 43 483
1250 -11.024393990224207 -5.7633600212458385 32.048944407877485 255 254 249 0.60954739940993641 8 647 37 337 7 487 36 410 4 436 5 628 6 2915 38 306 32 672 43 503 48 1961 46 721 45 703
1253 -3.2318326319892203 -5.0079947998850942 29.627500898163536 251 245 231 0.75053864936681991 7 526 37 343 36 418 34 493 41 350 14 402
1254 -0.74361311729253976 -4.5885651655540745 28.182519922758743 177 169 156 0.50949985772692929 4 484 7 527 37 344 36 419 43 510 40 478 44 315 42 343 47 576 45 710 1 1643
1255 1.3241510518334529 -4.3636453002984554 29.846446719308137 189 184 165 0.31124391142811192 6 2963 37 347 5 2423 7 2287 34 1845 49 1817 3 1981 8 2623 41 353
1257 7.1195345100039589 -5.5753975129917848 35.56881654849807 203 196 189 0.10156172017765421 4 491 37 351
1258 11.021685596357294 -3.9274728492193556 29.756965230794755 231 224 205 0.25736234026440347 9 1888 37 362 38 321
1259 11.548750525762841 -2.9477751763245466 29.257392468571798 166 159 140 0.32405361911979624 7 591 39 276 37 391 34 582
1260 7.499063024280118 -2.8119390108439237 31.959284883022359 160 153 135 0.42793502290565594 5 765 37 410 6 916 36 481 47 674
1261 7.747468409738631 -2.2892633499124631 31.917226149074981 154 151 134 0.63891995057139028 8 780 37 411 36 512 44 440 17 348 45 805
1262 4.8624899594526099 -1.5037713644393289 17.02888979347879 254 253 244 1.7587961344634788 5 769 37 416
1263 1.7234442169561279 -1.5978193096368667 32.300442676580715 134 126 114 0.66324981702061125 8 821 9 566 37 436 6 959 36 503 3 646 32 853 26 773 25 711 23 657 41 428 40 561 44 471 28 641 14 512 19 397 18 585 20 710 15 1869 17 364 13 1214 33 1354 12 287 27 439
1264 10.879296535737485 -1.0805061221754504 31.382595936181286 254 250 237 0.29937261220390654 8 869 37 447 4 645 6 1037 36 552 39 336 3 700 34 641 38 378 49 718 41 445 43 650 40 580 44 495 42 437 48 602 47 717 13 1251 46 850 45 865 2 1421
1265 10.872122583075253 -1.0800637493301148 31.366361775748057 254 250 237 0.30990630372363775 4 644 8 868 37 448 7 700 5 2541 6 1036 9 601 3 699 38 377 32 877 49 719 39 335 43 651 42 438 47 716 36 553 34 642 46 851 13 1250 45 866 2 1422
1266 -0.76656168559929871 -1.0754129810435582 28.397943676312934 161 149 125 0.35994855864138647 7 681 37 463 18 618
1267 0.073281465131733836 -1.2084981216975028 31.227777105714772 225 214 192 0.24119135783891862 8 2726 37 465 36 533 27 435
1268 1.7421139901738014 -1.1441367074672237 32.405435332708045 104 92 76 0.53241842856568133 4 630 5 832 6 1007 7 2401 8 2730 9 593 37 468 3 679 34 625 38 391 43 2338 41 1790 40 592 44 522 42 456 48 2128 47 1951 46 834 13 1222 45 852 2 1399 24 442
1270 10.905606842527789 -0.38440866942433355 31.408528921916176 118 107 85 0.72278398173708358 6 1042 9 604 37 485 36 561 3 706 49 722 31 703 26 791 25 725 29 701 41 485 40 599 28 656
1271 10.879356848578924 -0.18258063976456337 31.531555661583297 126 115 93 0.59025814094307361 7 754 39 370 37 486 34 2033 25 762 23 712 8 914
1272 15.554755287667852 -0.88445503181791418 36.502153631253712 216 211 181 0.20491231015113409 37 492 29 709
1273 13.715273719501665 -0.71275546632773068 31.834280561692939 123 117 95 0.57418916344931237 6 3094 37 494 12 314
1275 0.70832427959250155 -0.11670834140814718 30.70923139269706 188 177 165 0.33905253165816007 7 728 37 507 3 721
1277 1.3830317442930093 -0.16080246523675365 31.128121080604412 113 100 88 0.72624140916825675 6 1071 8 894 37 511 3 723 34 662 32 920 26 818 29 720 43 734 44 565 48 631 46 881 35 1184 22 694 24 466 10 434
1278 1.1399690043172217 0.26248723188887135 30.986861998955348 164 156 145 0.20826220588173094 4 680 37 512 36 577 3 724 32 919 30 960
1279 1.392725597539852 0.24764621961699657 31.214767165849892 149 141 130 1.1993520977448573 4 681 5 2559 9 1986 37 513 8 2756 32 921 39 391 29 725 43 738 15 609 48 2169 13 1369 45 2679 33 439
1280 1.7732428479827971 -0.27520872224456605 25.164689831079855 131 118 100 0.86819990878795916 4 686 37 516
1281 6.6447963620821415 -0.11238481871791534 31.390425888484838 137 129 110 0.53722967194769267 5 894 37 519 6 1085 9 626 31 745 26 825 25 757 29 728 43 698 27 467 10 438
1282 -0.22216142397240632 -0.11746179880209497 10.174189019344656 107 100 84 0.023944141074331897 8 896 37 520
1283 2.9232019167236052 3.0304579144193076 31.238679838177841 84 48 22 0.62872958806933166 6 1284 7 857 8 1031 37 585 36 1909 31 2418 23 778 19 578 47 832 46 968
1285 2.9800652718915321 3.0934625225765497 31.067992610390277 106 73 48 0.70135916193970427 8 2863 37 587 6 3206 30 1132 23 840 31 889 19 580 47 835 46 2422 35 1371 45 992
1286 3.0211230464788676 3.1755041038801739 31.084267252066532 75 50 32 0.77485864777788327 4 782 8 1033 37 589 5 1009 36 653 31 890 20 953 47 836 46 971 35 1372 40 761
1287 13.865719695619118 3.5303729007461713 31.180039206412935 90 64 47 0.89889435248558569 4 788 6 1332 37 596 39 451 36 672 3 813 34 2112 31 922 30 1174 26 962 25 875 23 789 29 868 43 823 44 706 14 662 19 545 20 901 16 517 24 583 10 549 21 651 11 393
1289 14.894289703456806 3.8102507715519498 30.491679831517605 100 88 82 0.56373829466411352 5 2726 9 771 37 600 34 2154 32 1183 41 593 42 602 10 558 11 401
1290 14.396951584385979 3.8633129193694797 30.448555663610847 57 49 36 0.78263206672971986 9 768 37 601 31 974 25 925 48 783 40 769 17 520 46 2476 35 1409 45 1045 2 1799
1291 15.641706775676715 3.8810030901283765 30.049583294543208 97 88 79 0.92596026097190431 4 2414 37 603 36 718 6 1414 3 2248 32 1190 49 2073 31 2474 44 725 42 611 19 604 48 2303 47 2111 16 524 46 1031 1 2514
1292 15.900197604271494 3.9843108947381585 29.857374888517061 58 51 35 0.96839570794244467 4 834 37 606 7 929 9 784 49 870 43 836
1293 16.658792541678988 4.1703758629148417 31.125863730889908 58 51 35 1.2992851790723168 4 835 37 607 49 871 12 408
1294 16.302377074772533 3.9998300607297161 30.248611447820984 95 83 67 1.4279001949174777 4 836 39 542 37 608 49 872 31 2478 23 2067 7 2603 29 2277 41 600 40 796 28 1847 32 1204 20 2252 48 2312 47 887 16 1436 25 3094 13 1640 26 3228 14 2522 11 940
1295 15.640376668617293 3.9323860089704414 29.150860978491622 57 45 32 0.62302728781860328 5 2745 6 1419 37 609 7 935 9 787 4 842 3 886 38 572 49 874 44 736 48 808 47 894 46 1036 35 1421 13 1641 45 1065 2 1819 1 2524 24 606
1296 16.286988265137882 4.0346623530249577 28.953311653039911 82 63 46 0.97911527624751105 4 2427 5 1098 37 613 6 3311 8 1140 36 730 3 894 32 1206 49 959 31 1000 30 2931 29 2282 25 3096 19 615 18 2151 15 731 48 817 17 1611 47 900 16 2022 25 3456 2 1822 1 2533
1297 -10.395191991236139 2.2778938948899694 24.428854500678362 78 73 69 1.4022910103424051 7 2564 8 2906 9 749 37 616 6 3261 3 776 31 2447 30 2895 29 884 40 2242 14 2529 18 2207 17 1652 12 413 21 1645 11 1251
1299 13.737999123922304 4.6683316333140352 29.965543166268176 78 69 62 1.4536315928720143 7 989 26 1096 41 649
1300 14.292225643629427 4.2840940349827159 29.242845869026798 82 73 59 0.72901620006246126 8 1115 37 635 6 1408 3 863 32 1273 42 665 19 601 18 822 23 2729 46 1025 35 1468
1302 13.527272395497137 4.5178035327385579 28.763512378169391 68 59 52 1.6388933245412898 7 990 37 638 8 1196 34 2207 42 668 12 1086 21 1663
1304 14.334537383969435 4.4552719443198256 28.439104403144746 69 59 42 0.61342136238036538 6 1501 9 2176 37 650 36 717 38 624 30 2978 26 2502 25 1019 23 2103 14 715 19 1954 18 879 20 2283 15 787 17 577 47 885 16 561 12 435
1305 14.254856790272342 4.4453747588252011 28.322863203060926 69 59 42 0.44754514767474207 5 2784 7 2654 8 3876 37 651 4 2468 9 2177 3 2291 49 2119 43 908 42 1867
1306 14.521654749810258 4.5970652027311667 27.927188876708968 59 57 45 1.2745251120930625 6 1506 7 2659 8 1206 37 655 38 627 32 1287 49 951 31 1066 30 1320 26 1105 25 1024 29 2321 43 911 44 2303 42 692 42 693 28 1882 15 788 16 1477 46 1041 35 1490 45 1062 2 1910 1 2647
1307 15.620296676384154 4.2155479103838109 29.069060871521231 96 86 73 0.61567685972474251 5 1089 37 656 32 1282 31 988 26 2451 25 2392 29 2280 17 544
1309 15.532051511775798 4.2864832257000156 28.715906083369511 112 105 77 0.77427398264026159 4 848 5 1167 6 3309 7 948 8 1134 9 798 37 660 36 725 18 838 20 997 46 1038 35 1493 13 1731 2 1820
1310 15.405511519320481 4.4039386738758193 28.486444811901382 106 96 67 0.80781060486059897 6 1512 7 1009 8 1208 37 661 32 1290 31 1076 44 807 14 725 21 745
1312 16.184327713397607 4.427707597526485 28.856670333191062 113 101 79 0.45101966488251904 8 1219 37 666 36 735 49 967 43 915 41 690 40 2168
1314 14.910513629740242 4.6397828749487209 27.734289408026044 97 92 78 0.80534984287048927 6 3357 8 1212 37 669 36 775 32 1289 32 2900 31 2526 9 858 30 1329 26 1111 29 2328 23 930 43 923 41 689 40 844 44 816 42 1880 28 2485 19 1960 14 731 18 888 17 581 47 944 16 1480 2 1918 22 2105 12 1107
1315 15.611909174803573 4.3790351969810093 28.139231834650829 64 48 23 0.48209404048639493 4 915 5 1169 6 1516 7 1014 8 1214 37 670 9 803 36 738 3 952 38 630 32 1292 30 1327 26 1116 23 875 29 991 43 916 42 695 28 849 14 732 19 658 15 795 48 882 17 584
1316 15.385500364259793 4.4557039914152146 27.943456575246419 46 34 18 0.33394784218390616 4 917 6 1519 7 1016 37 672 8 1216 36 737 34 2219 37 1987 38 633 49 964 20 1046 22 1002
1318 16.274840661517729 4.8228605139144474 27.827026666315799 68 61 51 1.5135792885460764 4 938 6 3360 7 1030 9 869 37 680 8 1232 36 797 32 1305 49 2166 3 2298 31 1099 29 1014 43 934 40 855 28 874 19 668 18 908 18 909 15 2049 48 890 17 598 47 951 47 2156 16 572 35 3197 13 4039 2 4336 1 2666 22 1021 27 714 12 469 20 2291
1319 -3.8010149320023605 3.6573153294628207 28.863638205213398 103 99 96 1.1493699084139506 6 3276 37 703 25 981 43 2571 20 2267
1320 -0.5933383797977636 3.9786126981411885 27.657880176804685 115 112 103 1.992401096784006 7 2643 37 711 34 841 47 2144 49 909 46 2473 45 1043 24 630
1321 -0.45129137219143922 4.0273614051900859 27.274680063522805 74 71 62 1.6660847992113736 9 2170 37 713 4 2461 36 769 5 1145 34 2204 49 911 4 896 40 907 14 758 15 830 32 1267 45 1044 22 970
1322 16.354674934954005 4.9251056088377219 25.950943583221754 112 86 61 0.42638279303561977 9 910 37 726 36 799 40 867
